394.800457 -1235.582020 -10.344690
396.219696 -1236.727828 -9.524396
397.638936 -1237.873636 -8.704101
399.058175 -1239.019444 -7.883807
400.477415 -1240.165252 -7.063512
401.896655 -1241.311061 -6.243218
403.315894 -1242.456869 -5.422924
404.735134 -1243.602677 -4.602629
406.154373 -1244.748485 -3.782335
407.573613 -1245.894293 -2.962040
408.992852 -1247.040101 -2.141746
410.412092 -1248.185909 -1.321452
411.831331 -1249.331717 -0.501157
413.250571 -1250.477525 0.319137
414.669810 -1251.623333 1.139432
416.089050 -1252.769141 1.959726
417.508290 -1253.914949 2.780021
418.927529 -1255.060757 3.600315
420.346769 -1256.206566 4.420609
421.766008 -1257.352374 5.240904
423.185248 -1258.498182 6.061198
424.604487 -1259.643990 6.881493
426.023727 -1260.789798 7.701787
427.442966 -1261.935606 8.522082
264.000000 -1174.000000 -230.000000
264.000000 -1174.000000 -230.000000
264.613027 -1174.021510 -228.096389
265.226055 -1174.043019 -226.192778
265.839082 -1174.064529 -224.289167
266.452109 -1174.086039 -222.385556
267.065136 -1174.107549 -220.481945
267.678164 -1174.129058 -218.578334
268.291191 -1174.150568 -216.674723
268.904218 -1174.172078 -214.771112
269.517245 -1174.193588 -212.867501
270.130273 -1174.215097 -210.963890
270.743300 -1174.236607 -209.060279
271.356327 -1174.258117 -207.156668
271.969355 -1174.279626 -205.253057
272.582382 -1174.301136 -203.349446
273.195409 -1174.322646 -201.445835
273.808436 -1174.344156 -199.542224
274.421464 -1174.365665 -197.638613
275.034491 -1174.387175 -195.735002
275.647518 -1174.408685 -193.831391
276.260546 -1174.430195 -191.927780
276.873573 -1174.451704 -190.024169
277.486600 -1174.473214 -188.120558
278.099627 -1174.494724 -186.216947
278.712655 -1174.516233 -184.313336
279.325682 -1174.537743 -182.409725
279.938709 -1174.559253 -180.506114
280.551736 -1174.580763 -178.602503
281.164764 -1174.602272 -176.698892
281.777791 -1174.623782 -174.795281
282.390818 -1174.645292 -172.891670
283.003846 -1174.666802 -170.988059
283.616873 -1174.688311 -169.084448
284.229900 -1174.709821 -167.180837
284.842927 -1174.731331 -165.277226
285.455955 -1174.752841 -163.373615
286.068982 -1174.774350 -161.470004
286.682009 -1174.795860 -159.566392
287.295036 -1174.817370 -157.662781
287.908064 -1174.838879 -155.759170
288.521091 -1174.860389 -153.855559
289.134118 -1174.881899 -151.951948
289.747146 -1174.903409 -150.048337
290.360173 -1174.924918 -148.144726
290.973200 -1174.946428 -146.241115
291.586227 -1174.967938 -144.337504
292.199255 -1174.989448 -142.433893
292.812282 -1175.010957 -140.530282
293.425309 -1175.032467 -138.626671
294.038337 -1175.053977 -136.723060
294.651364 -1175.075486 -134.819449
295.264391 -1175.096996 -132.915838
295.877418 -1175.118506 -131.012227
296.490446 -1175.140016 -129.108616
297.103473 -1175.161525 -127.205005
297.716500 -1175.183035 -125.301394
298.329527 -1175.204545 -123.397783
298.942555 -1175.226055 -121.494172
299.555582 -1175.247564 -119.590561
300.168609 -1175.269074 -117.686950
300.781637 -1175.290584 -115.783339
301.394664 -1175.312093 -113.879728
302.007691 -1175.333603 -111.976117
302.620718 -1175.355113 -110.072506
303.233746 -1175.376623 -108.168895
303.846773 -1175.398132 -106.265284
304.459800 -1175.419642 -104.361673
305.072827 -1175.441152 -102.458062
305.685855 -1175.462662 -100.554451
306.298882 -1175.484171 -98.650840
306.911909 -1175.505681 -96.747229
307.524937 -1175.527191 -94.843618
308.137964 -1175.548700 -92.940007
308.750991 -1175.570210 -91.036396
309.364018 -1175.591720 -89.132785
309.977046 -1175.613230 -87.229174
310.590073 -1175.634739 -85.325563
311.203100 -1175.656249 -83.421952
311.816127 -1175.677759 -81.518341
312.429155 -1175.699269 -79.614730
313.042182 -1175.720778 -77.711119
313.655209 -1175.742288 -75.807508
314.268237 -1175.763798 -73.903897
314.881264 -1175.785308 -72.000286
315.494291 -1175.806817 -70.096675
316.107318 -1175.828327 -68.193064
316.720346 -1175.849837 -66.289453
317.333373 -1175.871346 -64.385842
317.946400 -1175.892856 -62.482231
318.559428 -1175.914366 -60.578620
319.172455 -1175.935876 -58.675009
319.785482 -1175.957385 -56.771398
316.000000 -1172.000000 -230.000000
316.000000 -1172.000000 -230.000000
314.001478 -1172.076866 -230.000000
312.002955 -1172.153732 -230.000000
310.004433 -1172.230599 -230.000000
308.005911 -1172.307465 -230.000000
306.007388 -1172.384331 -230.000000
304.008866 -1172.461197 -230.000000
302.010344 -1172.538064 -230.000000
300.011821 -1172.614930 -230.000000
298.013299 -1172.691796 -230.000000
296.014777 -1172.768662 -230.000000
294.016254 -1172.845529 -230.000000
292.017732 -1172.922395 -230.000000
290.019209 -1172.999261 -230.000000
288.020687 -1173.076127 -230.000000
286.022165 -1173.152994 -230.000000
284.023642 -1173.229860 -230.000000
282.025120 -1173.306726 -230.000000
280.026598 -1173.383592 -230.000000
278.028075 -1173.460459 -230.000000
276.029553 -1173.537325 -230.000000
274.031031 -1173.614191 -230.000000
272.032508 -1173.691057 -230.000000
270.033986 -1173.767924 -230.000000
268.035464 -1173.844790 -230.000000
266.036941 -1173.921656 -230.000000
373.000000 -990.000000 -210.000000
373.000000 -990.000000 -210.000000
372.405516 -991.898178 -210.208591
371.811032 -993.796355 -210.417182
371.216547 -995.694533 -210.625773
370.622063 -997.592711 -210.834364
370.027579 -999.490888 -211.042955
369.433095 -1001.389066 -211.251546
368.838611 -1003.287243 -211.460137
368.244126 -1005.185421 -211.668728
367.649642 -1007.083599 -211.877319
367.055158 -1008.981776 -212.085909
366.460674 -1010.879954 -212.294500
365.866190 -1012.778132 -212.503091
365.271705 -1014.676309 -212.711682
364.677221 -1016.574487 -212.920273
364.082737 -1018.472665 -213.128864
363.488253 -1020.370842 -213.337455
362.893769 -1022.269020 -213.546046
362.299284 -1024.167197 -213.754637
361.704800 -1026.065375 -213.963228
361.110316 -1027.963553 -214.171819
360.515832 -1029.861730 -214.380410
359.921347 -1031.759908 -214.589001
359.326863 -1033.658086 -214.797592
358.732379 -1035.556263 -215.006183
358.137895 -1037.454441 -215.214774
357.543411 -1039.352619 -215.423365
356.948926 -1041.250796 -215.631956
356.354442 -1043.148974 -215.840547
355.759958 -1045.047152 -216.049138
355.165474 -1046.945329 -216.257728
354.570990 -1048.843507 -216.466319
353.976505 -1050.741684 -216.674910
353.382021 -1052.639862 -216.883501
352.787537 -1054.538040 -217.092092
352.193053 -1056.436217 -217.300683
351.598569 -1058.334395 -217.509274
351.004084 -1060.232573 -217.717865
350.409600 -1062.130750 -217.926456
349.815116 -1064.028928 -218.135047
349.220632 -1065.927106 -218.343638
348.626148 -1067.825283 -218.552229
348.031663 -1069.723461 -218.760820
347.437179 -1071.621638 -218.969411
346.842695 -1073.519816 -219.178002
346.248211 -1075.417994 -219.386593
345.653727 -1077.316171 -219.595184
345.059242 -1079.214349 -219.803775
344.464758 -1081.112527 -220.012366
343.870274 -1083.010704 -220.220957
343.275790 -1084.908882 -220.429547
342.681306 -1086.807060 -220.638138
342.086821 -1088.705237 -220.846729
341.492337 -1090.603415 -221.055320
340.897853 -1092.501592 -221.263911
340.303369 -1094.399770 -221.472502
339.708885 -1096.297948 -221.681093
339.114400 -1098.196125 -221.889684
338.519916 -1100.094303 -222.098275
337.925432 -1101.992481 -222.306866
337.330948 -1103.890658 -222.515457
336.736463 -1105.788836 -222.724048
336.141979 -1107.687014 -222.932639
335.547495 -1109.585191 -223.141230
334.953011 -1111.483369 -223.349821
334.358527 -1113.381546 -223.558412
333.764042 -1115.279724 -223.767003
333.169558 -1117.177902 -223.975594
332.575074 -1119.076079 -224.184185
331.980590 -1120.974257 -224.392775
331.386106 -1122.872435 -224.601366
330.791621 -1124.770612 -224.809957
330.197137 -1126.668790 -225.018548
329.602653 -1128.566968 -225.227139
329.008169 -1130.465145 -225.435730
328.413685 -1132.363323 -225.644321
327.819200 -1134.261500 -225.852912
327.224716 -1136.159678 -226.061503
326.630232 -1138.057856 -226.270094
326.035748 -1139.956033 -226.478685
325.441264 -1141.854211 -226.687276
324.846779 -1143.752389 -226.895867
324.252295 -1145.650566 -227.104458
323.657811 -1147.548744 -227.313049
323.063327 -1149.446922 -227.521640
322.468843 -1151.345099 -227.730231
321.874358 -1153.243277 -227.938822
321.279874 -1155.141455 -228.147413
320.685390 -1157.039632 -228.356004
320.090906 -1158.937810 -228.564594
319.496422 -1160.835987 -228.773185
318.901937 -1162.734165 -228.981776
318.307453 -1164.632343 -229.190367
317.712969 -1166.530520 -229.398958
317.118485 -1168.428698 -229.607549
430.000000 -1129.000000 -169.000000
430.000000 -1129.000000 -169.000000
429.267951 -1127.214828 -169.526561
428.535902 -1125.429657 -170.053123
427.803854 -1123.644485 -170.579684
427.071805 -1121.859314 -171.106246
426.339756 -1120.074142 -171.632807
425.607707 -1118.288970 -172.159368
424.875658 -1116.503799 -172.685930
424.143610 -1114.718627 -173.212491
423.411561 -1112.933456 -173.739053
422.679512 -1111.148284 -174.265614
421.947463 -1109.363112 -174.792175
421.215415 -1107.577941 -175.318737
420.483366 -1105.792769 -175.845298
419.751317 -1104.007598 -176.371860
419.019268 -1102.222426 -176.898421
418.287219 -1100.437254 -177.424983
417.555171 -1098.652083 -177.951544
416.823122 -1096.866911 -178.478105
416.091073 -1095.081740 -179.004667
415.359024 -1093.296568 -179.531228
414.626975 -1091.511396 -180.057790
413.894927 -1089.726225 -180.584351
413.162878 -1087.941053 -181.110912
412.430829 -1086.155882 -181.637474
411.698780 -1084.370710 -182.164035
410.966732 -1082.585538 -182.690597
410.234683 -1080.800367 -183.217158
409.502634 -1079.015195 -183.743719
408.770585 -1077.230023 -184.270281
408.038536 -1075.444852 -184.796842
407.306488 -1073.659680 -185.323404
406.574439 -1071.874509 -185.849965
405.842390 -1070.089337 -186.376526
405.110341 -1068.304165 -186.903088
404.378292 -1066.518994 -187.429649
403.646244 -1064.733822 -187.956211
402.914195 -1062.948651 -188.482772
402.182146 -1061.163479 -189.009334
401.450097 -1059.378307 -189.535895
400.718049 -1057.593136 -190.062456
399.986000 -1055.807964 -190.589018
399.253951 -1054.022793 -191.115579
398.521902 -1052.237621 -191.642141
397.789853 -1050.452449 -192.168702
397.057805 -1048.667278 -192.695263
396.325756 -1046.882106 -193.221825
395.593707 -1045.096935 -193.748386
394.861658 -1043.311763 -194.274948
394.129609 -1041.526591 -194.801509
393.397561 -1039.741420 -195.328070
392.665512 -1037.956248 -195.854632
391.933463 -1036.171077 -196.381193
391.201414 -1034.385905 -196.907755
390.469365 -1032.600733 -197.434316
389.737317 -1030.815562 -197.960877
389.005268 -1029.030390 -198.487439
388.273219 -1027.245219 -199.014000
387.541170 -1025.460047 -199.540562
386.809122 -1023.674875 -200.067123
386.077073 -1021.889704 -200.593685
385.345024 -1020.104532 -201.120246
384.612975 -1018.319361 -201.646807
383.880926 -1016.534189 -202.173369
383.148878 -1014.749017 -202.699930
382.416829 -1012.963846 -203.226492
381.684780 -1011.178674 -203.753053
380.952731 -1009.393503 -204.279614
380.220682 -1007.608331 -204.806176
379.488634 -1005.823159 -205.332737
378.756585 -1004.037988 -205.859299
378.024536 -1002.252816 -206.385860
377.292487 -1000.467645 -206.912421
376.560439 -998.682473 -207.438983
375.828390 -996.897301 -207.965544
375.096341 -995.112130 -208.492106
374.364292 -993.326958 -209.018667
430.000000 -1190.000000 -169.000000
430.000000 -1190.000000 -169.000000
430.000000 -1188.000000 -169.000000
430.000000 -1186.000000 -169.000000
430.000000 -1184.000000 -169.000000
430.000000 -1182.000000 -169.000000
430.000000 -1180.000000 -169.000000
430.000000 -1178.000000 -169.000000
430.000000 -1176.000000 -169.000000
430.000000 -1174.000000 -169.000000
430.000000 -1172.000000 -169.000000
430.000000 -1170.000000 -169.000000
430.000000 -1168.000000 -169.000000
430.000000 -1166.000000 -169.000000
430.000000 -1164.000000 -169.000000
430.000000 -1162.000000 -169.000000
430.000000 -1160.000000 -169.000000
430.000000 -1158.000000 -169.000000
430.000000 -1156.000000 -169.000000
430.000000 -1154.000000 -169.000000
430.000000 -1152.000000 -169.000000
430.000000 -1150.000000 -169.000000
430.000000 -1148.000000 -169.000000
430.000000 -1146.000000 -169.000000
430.000000 -1144.000000 -169.000000
430.000000 -1142.000000 -169.000000
430.000000 -1140.000000 -169.000000
430.000000 -1138.000000 -169.000000
430.000000 -1136.000000 -169.000000
430.000000 -1134.000000 -169.000000
430.000000 -1132.000000 -169.000000
-207.000000 -1176.000000 -230.000000
-207.000000 -1176.000000 -230.000000
-205.009584 -1176.043745 -229.809395
-203.019168 -1176.087491 -229.618790
-201.028752 -1176.131236 -229.428185
-199.038336 -1176.174982 -229.237580
-197.047920 -1176.218727 -229.046975
-195.057504 -1176.262472 -228.856370
-193.067088 -1176.306218 -228.665765
-191.076672 -1176.349963 -228.475160
-189.086255 -1176.393709 -228.284555
-187.095839 -1176.437454 -228.093950
-185.105423 -1176.481199 -227.903345
-183.115007 -1176.524945 -227.712740
-181.124591 -1176.568690 -227.522135
-179.134175 -1176.612436 -227.331530
-177.143759 -1176.656181 -227.140925
-175.153343 -1176.699927 -226.950320
-173.162927 -1176.743672 -226.759715
-171.172511 -1176.787417 -226.569110
-169.182095 -1176.831163 -226.378505
-167.191679 -1176.874908 -226.187900
-165.201263 -1176.918654 -225.997295
-163.210847 -1176.962399 -225.806690
-161.220431 -1177.006144 -225.616085
-159.230015 -1177.049890 -225.425480
-157.239599 -1177.093635 -225.234875
-155.249183 -1177.137381 -225.044270
-153.258766 -1177.181126 -224.853665
-151.268350 -1177.224871 -224.663060
-149.277934 -1177.268617 -224.472455
-147.287518 -1177.312362 -224.281850
-145.297102 -1177.356108 -224.091245
-143.306686 -1177.399853 -223.900640
-141.316270 -1177.443598 -223.710035
-139.325854 -1177.487344 -223.519430
-137.335438 -1177.531089 -223.328825
-135.345022 -1177.574835 -223.138220
-133.354606 -1177.618580 -222.947615
-131.364190 -1177.662325 -222.757010
-129.373774 -1177.706071 -222.566405
-127.383358 -1177.749816 -222.375800
-125.392942 -1177.793562 -222.185195
-123.402526 -1177.837307 -221.994590
-121.412110 -1177.881053 -221.803985
-119.421694 -1177.924798 -221.613380
-117.431277 -1177.968543 -221.422775
-115.440861 -1178.012289 -221.232170
-113.450445 -1178.056034 -221.041565
-111.460029 -1178.099780 -220.850960
-109.469613 -1178.143525 -220.660355
-107.479197 -1178.187270 -220.469750
-105.488781 -1178.231016 -220.279145
-103.498365 -1178.274761 -220.088540
-101.507949 -1178.318507 -219.897935
-99.517533 -1178.362252 -219.707330
-97.527117 -1178.405997 -219.516725
-95.536701 -1178.449743 -219.326120
-93.546285 -1178.493488 -219.135515
-91.555869 -1178.537234 -218.944911
-89.565453 -1178.580979 -218.754306
-87.575037 -1178.624724 -218.563701
-85.584621 -1178.668470 -218.373096
-83.594205 -1178.712215 -218.182491
-81.603788 -1178.755961 -217.991886
-79.613372 -1178.799706 -217.801281
-77.622956 -1178.843452 -217.610676
-75.632540 -1178.887197 -217.420071
-73.642124 -1178.930942 -217.229466
-71.651708 -1178.974688 -217.038861
-69.661292 -1179.018433 -216.848256
-67.670876 -1179.062179 -216.657651
-65.680460 -1179.105924 -216.467046
-63.690044 -1179.149669 -216.276441
-61.699628 -1179.193415 -216.085836
-59.709212 -1179.237160 -215.895231
-57.718796 -1179.280906 -215.704626
-55.728380 -1179.324651 -215.514021
-53.737964 -1179.368396 -215.323416
-51.747548 -1179.412142 -215.132811
-49.757132 -1179.455887 -214.942206
-47.766716 -1179.499633 -214.751601
-45.776299 -1179.543378 -214.560996
-43.785883 -1179.587123 -214.370391
-41.795467 -1179.630869 -214.179786
-39.805051 -1179.674614 -213.989181
-37.814635 -1179.718360 -213.798576
-35.824219 -1179.762105 -213.607971
-33.833803 -1179.805850 -213.417366
-31.843387 -1179.849596 -213.226761
-29.852971 -1179.893341 -213.036156
-27.862555 -1179.937087 -212.845551
-25.872139 -1179.980832 -212.654946
-23.881723 -1180.024578 -212.464341
-21.891307 -1180.068323 -212.273736
-19.900891 -1180.112068 -212.083131
-17.910475 -1180.155814 -211.892526
-15.920059 -1180.199559 -211.701921
-13.929643 -1180.243305 -211.511316
-11.939226 -1180.287050 -211.320711
-9.948810 -1180.330795 -211.130106
-7.958394 -1180.374541 -210.939501
-5.967978 -1180.418286 -210.748896
-3.977562 -1180.462032 -210.558291
-1.987146 -1180.505777 -210.367686
0.003270 -1180.549522 -210.177081
1.993686 -1180.593268 -209.986476
3.984102 -1180.637013 -209.795871
5.974518 -1180.680759 -209.605266
7.964934 -1180.724504 -209.414661
9.955350 -1180.768249 -209.224056
11.945766 -1180.811995 -209.033451
13.936182 -1180.855740 -208.842846
15.926598 -1180.899486 -208.652241
17.917014 -1180.943231 -208.461636
19.907430 -1180.986976 -208.271031
21.897846 -1181.030722 -208.080426
23.888263 -1181.074467 -207.889821
25.878679 -1181.118213 -207.699216
27.869095 -1181.161958 -207.508611
29.859511 -1181.205704 -207.318006
31.849927 -1181.249449 -207.127401
33.840343 -1181.293194 -206.936796
35.830759 -1181.336940 -206.746191
37.821175 -1181.380685 -206.555586
39.811591 -1181.424431 -206.364981
41.802007 -1181.468176 -206.174376
43.792423 -1181.511921 -205.983771
45.782839 -1181.555667 -205.793166
47.773255 -1181.599412 -205.602561
49.763671 -1181.643158 -205.411956
51.754087 -1181.686903 -205.221351
53.744503 -1181.730648 -205.030746
55.734919 -1181.774394 -204.840141
57.725335 -1181.818139 -204.649536
59.715752 -1181.861885 -204.458931
61.706168 -1181.905630 -204.268326
63.696584 -1181.949375 -204.077721
65.687000 -1181.993121 -203.887116
67.677416 -1182.036866 -203.696511
69.667832 -1182.080612 -203.505906
71.658248 -1182.124357 -203.315301
73.648664 -1182.168103 -203.124696
75.639080 -1182.211848 -202.934091
77.629496 -1182.255593 -202.743486
79.619912 -1182.299339 -202.552881
81.610328 -1182.343084 -202.362276
83.600744 -1182.386830 -202.171671
85.591160 -1182.430575 -201.981066
87.581576 -1182.474320 -201.790461
89.571992 -1182.518066 -201.599856
91.562408 -1182.561811 -201.409251
93.552824 -1182.605557 -201.218646
95.543241 -1182.649302 -201.028041
97.533657 -1182.693047 -200.837436
99.524073 -1182.736793 -200.646831
101.514489 -1182.780538 -200.456226
103.504905 -1182.824284 -200.265621
105.495321 -1182.868029 -200.075016
107.485737 -1182.911774 -199.884411
109.476153 -1182.955520 -199.693806
111.466569 -1182.999265 -199.503201
113.456985 -1183.043011 -199.312596
115.447401 -1183.086756 -199.121991
117.437817 -1183.130501 -198.931386
119.428233 -1183.174247 -198.740781
121.418649 -1183.217992 -198.550176
123.409065 -1183.261738 -198.359571
125.399481 -1183.305483 -198.168966
127.389897 -1183.349229 -197.978361
129.380313 -1183.392974 -197.787756
131.370730 -1183.436719 -197.597151
133.361146 -1183.480465 -197.406546
135.351562 -1183.524210 -197.215942
137.341978 -1183.567956 -197.025337
139.332394 -1183.611701 -196.834732
141.322810 -1183.655446 -196.644127
143.313226 -1183.699192 -196.453522
145.303642 -1183.742937 -196.262917
147.294058 -1183.786683 -196.072312
149.284474 -1183.830428 -195.881707
151.274890 -1183.874173 -195.691102
153.265306 -1183.917919 -195.500497
155.255722 -1183.961664 -195.309892
157.246138 -1184.005410 -195.119287
159.236554 -1184.049155 -194.928682
161.226970 -1184.092900 -194.738077
163.217386 -1184.136646 -194.547472
165.207803 -1184.180391 -194.356867
167.198219 -1184.224137 -194.166262
169.188635 -1184.267882 -193.975657
171.179051 -1184.311627 -193.785052
173.169467 -1184.355373 -193.594447
175.159883 -1184.399118 -193.403842
177.150299 -1184.442864 -193.213237
179.140715 -1184.486609 -193.022632
181.131131 -1184.530355 -192.832027
183.121547 -1184.574100 -192.641422
185.111963 -1184.617845 -192.450817
187.102379 -1184.661591 -192.260212
189.092795 -1184.705336 -192.069607
191.083211 -1184.749082 -191.879002
193.073627 -1184.792827 -191.688397
195.064043 -1184.836572 -191.497792
197.054459 -1184.880318 -191.307187
199.044875 -1184.924063 -191.116582
201.035292 -1184.967809 -190.925977
203.025708 -1185.011554 -190.735372
205.016124 -1185.055299 -190.544767
207.006540 -1185.099045 -190.354162
208.996956 -1185.142790 -190.163557
210.987372 -1185.186536 -189.972952
212.977788 -1185.230281 -189.782347
214.968204 -1185.274026 -189.591742
216.958620 -1185.317772 -189.401137
218.949036 -1185.361517 -189.210532
220.939452 -1185.405263 -189.019927
222.929868 -1185.449008 -188.829322
224.920284 -1185.492753 -188.638717
226.910700 -1185.536499 -188.448112
228.901116 -1185.580244 -188.257507
230.891532 -1185.623990 -188.066902
232.881948 -1185.667735 -187.876297
234.872364 -1185.711481 -187.685692
236.862781 -1185.755226 -187.495087
238.853197 -1185.798971 -187.304482
240.843613 -1185.842717 -187.113877
242.834029 -1185.886462 -186.923272
244.824445 -1185.930208 -186.732667
246.814861 -1185.973953 -186.542062
248.805277 -1186.017698 -186.351457
250.795693 -1186.061444 -186.160852
252.786109 -1186.105189 -185.970247
254.776525 -1186.148935 -185.779642
256.766941 -1186.192680 -185.589037
258.757357 -1186.236425 -185.398432
260.747773 -1186.280171 -185.207827
262.738189 -1186.323916 -185.017222
264.728605 -1186.367662 -184.826617
266.719021 -1186.411407 -184.636012
268.709437 -1186.455152 -184.445407
270.699853 -1186.498898 -184.254802
272.690270 -1186.542643 -184.064197
274.680686 -1186.586389 -183.873592
276.671102 -1186.630134 -183.682987
278.661518 -1186.673880 -183.492382
280.651934 -1186.717625 -183.301777
282.642350 -1186.761370 -183.111172
284.632766 -1186.805116 -182.920567
286.623182 -1186.848861 -182.729962
288.613598 -1186.892607 -182.539357
290.604014 -1186.936352 -182.348752
292.594430 -1186.980097 -182.158147
294.584846 -1187.023843 -181.967542
296.575262 -1187.067588 -181.776937
298.565678 -1187.111334 -181.586332
300.556094 -1187.155079 -181.395727
302.546510 -1187.198824 -181.205122
304.536926 -1187.242570 -181.014517
306.527342 -1187.286315 -180.823912
308.517759 -1187.330061 -180.633307
310.508175 -1187.373806 -180.442702
312.498591 -1187.417551 -180.252097
314.489007 -1187.461297 -180.061492
316.479423 -1187.505042 -179.870887
318.469839 -1187.548788 -179.680282
320.460255 -1187.592533 -179.489677
322.450671 -1187.636278 -179.299072
324.441087 -1187.680024 -179.108467
326.431503 -1187.723769 -178.917862
328.421919 -1187.767515 -178.727257
330.412335 -1187.811260 -178.536652
332.402751 -1187.855006 -178.346047
334.393167 -1187.898751 -178.155442
336.383583 -1187.942496 -177.964837
338.373999 -1187.986242 -177.774232
340.364415 -1188.029987 -177.583627
342.354831 -1188.073733 -177.393022
344.345248 -1188.117478 -177.202417
346.335664 -1188.161223 -177.011812
348.326080 -1188.204969 -176.821207
350.316496 -1188.248714 -176.630602
352.306912 -1188.292460 -176.439997
354.297328 -1188.336205 -176.249392
356.287744 -1188.379950 -176.058787
358.278160 -1188.423696 -175.868182
360.268576 -1188.467441 -175.677577
362.258992 -1188.511187 -175.486973
364.249408 -1188.554932 -175.296368
366.239824 -1188.598677 -175.105763
368.230240 -1188.642423 -174.915158
370.220656 -1188.686168 -174.724553
372.211072 -1188.729914 -174.533948
374.201488 -1188.773659 -174.343343
376.191904 -1188.817404 -174.152738
378.182321 -1188.861150 -173.962133
380.172737 -1188.904895 -173.771528
382.163153 -1188.948641 -173.580923
384.153569 -1188.992386 -173.390318
386.143985 -1189.036132 -173.199713
388.134401 -1189.079877 -173.009108
390.124817 -1189.123622 -172.818503
392.115233 -1189.167368 -172.627898
394.105649 -1189.211113 -172.437293
396.096065 -1189.254859 -172.246688
398.086481 -1189.298604 -172.056083
400.076897 -1189.342349 -171.865478
402.067313 -1189.386095 -171.674873
404.057729 -1189.429840 -171.484268
406.048145 -1189.473586 -171.293663
408.038561 -1189.517331 -171.103058
410.028977 -1189.561076 -170.912453
412.019393 -1189.604822 -170.721848
414.009810 -1189.648567 -170.531243
416.000226 -1189.692313 -170.340638
417.990642 -1189.736058 -170.150033
419.981058 -1189.779803 -169.959428
421.971474 -1189.823549 -169.768823
423.961890 -1189.867294 -169.578218
425.952306 -1189.911040 -169.387613
427.942722 -1189.954785 -169.197008
-188.000000 -1172.000000 -230.000000
-188.000000 -1172.000000 -230.000000
-189.957100 -1172.412021 -230.000000
-191.914199 -1172.824042 -230.000000
-193.871299 -1173.236063 -230.000000
-195.828398 -1173.648084 -230.000000
-197.785498 -1174.060105 -230.000000
-199.742597 -1174.472126 -230.000000
-201.699697 -1174.884147 -230.000000
-203.656797 -1175.296168 -230.000000
-188.000000 -1168.000000 -230.000000
-188.000000 -1168.000000 -230.000000
-188.000000 -1092.000000 -230.000000
-188.000000 -1092.000000 -230.000000
-188.000000 -1094.000000 -230.000000
-188.000000 -1096.000000 -230.000000
-188.000000 -1098.000000 -230.000000
-188.000000 -1100.000000 -230.000000
-188.000000 -1102.000000 -230.000000
-188.000000 -1104.000000 -230.000000
-188.000000 -1106.000000 -230.000000
-188.000000 -1108.000000 -230.000000
-188.000000 -1110.000000 -230.000000
-188.000000 -1112.000000 -230.000000
-188.000000 -1114.000000 -230.000000
-188.000000 -1116.000000 -230.000000
-188.000000 -1118.000000 -230.000000
-188.000000 -1120.000000 -230.000000
-188.000000 -1122.000000 -230.000000
-188.000000 -1124.000000 -230.000000
-188.000000 -1126.000000 -230.000000
-188.000000 -1128.000000 -230.000000
-188.000000 -1130.000000 -230.000000
-188.000000 -1132.000000 -230.000000
-188.000000 -1134.000000 -230.000000
-188.000000 -1136.000000 -230.000000
-188.000000 -1138.000000 -230.000000
-188.000000 -1140.000000 -230.000000
-188.000000 -1142.000000 -230.000000
-188.000000 -1144.000000 -230.000000
-188.000000 -1146.000000 -230.000000
-188.000000 -1148.000000 -230.000000
-188.000000 -1150.000000 -230.000000
-188.000000 -1152.000000 -230.000000
-188.000000 -1154.000000 -230.000000
-188.000000 -1156.000000 -230.000000
-188.000000 -1158.000000 -230.000000
-188.000000 -1160.000000 -230.000000
-188.000000 -1162.000000 -230.000000
-188.000000 -1164.000000 -230.000000
-188.000000 -1088.000000 -230.000000
-188.000000 -1088.000000 -230.000000
-188.000000 -1080.000000 -230.000000
-188.000000 -1080.000000 -230.000000
-188.000000 -1082.000000 -230.000000
-188.000000 -1084.000000 -230.000000
-188.000000 -1076.000000 -230.000000
-188.000000 -1076.000000 -230.000000
-188.000000 -1000.000000 -230.000000
-188.000000 -1000.000000 -230.000000
-188.000000 -1002.000000 -230.000000
-188.000000 -1004.000000 -230.000000
-188.000000 -1006.000000 -230.000000
-188.000000 -1008.000000 -230.000000
-188.000000 -1010.000000 -230.000000
-188.000000 -1012.000000 -230.000000
-188.000000 -1014.000000 -230.000000
-188.000000 -1016.000000 -230.000000
-188.000000 -1018.000000 -230.000000
-188.000000 -1020.000000 -230.000000
-188.000000 -1022.000000 -230.000000
-188.000000 -1024.000000 -230.000000
-188.000000 -1026.000000 -230.000000
-188.000000 -1028.000000 -230.000000
-188.000000 -1030.000000 -230.000000
-188.000000 -1032.000000 -230.000000
-188.000000 -1034.000000 -230.000000
-188.000000 -1036.000000 -230.000000
-188.000000 -1038.000000 -230.000000
-188.000000 -1040.000000 -230.000000
-188.000000 -1042.000000 -230.000000
-188.000000 -1044.000000 -230.000000
-188.000000 -1046.000000 -230.000000
-188.000000 -1048.000000 -230.000000
-188.000000 -1050.000000 -230.000000
-188.000000 -1052.000000 -230.000000
-188.000000 -1054.000000 -230.000000
-188.000000 -1056.000000 -230.000000
-188.000000 -1058.000000 -230.000000
-188.000000 -1060.000000 -230.000000
-188.000000 -1062.000000 -230.000000
-188.000000 -1064.000000 -230.000000
-188.000000 -1066.000000 -230.000000
-188.000000 -1068.000000 -230.000000
-188.000000 -1070.000000 -230.000000
-188.000000 -1072.000000 -230.000000
-188.000000 -996.000000 -230.000000
-188.000000 -996.000000 -230.000000
-188.000000 -988.000000 -230.000000
-188.000000 -988.000000 -230.000000
-188.000000 -990.000000 -230.000000
-188.000000 -992.000000 -230.000000
-188.000000 -984.000000 -230.000000
-188.000000 -984.000000 -230.000000
-188.000000 -908.000000 -230.000000
-188.000000 -908.000000 -230.000000
-188.000000 -910.000000 -230.000000
-188.000000 -912.000000 -230.000000
-188.000000 -914.000000 -230.000000
-188.000000 -916.000000 -230.000000
-188.000000 -918.000000 -230.000000
-188.000000 -920.000000 -230.000000
-188.000000 -922.000000 -230.000000
-188.000000 -924.000000 -230.000000
-188.000000 -926.000000 -230.000000
-188.000000 -928.000000 -230.000000
-188.000000 -930.000000 -230.000000
-188.000000 -932.000000 -230.000000
-188.000000 -934.000000 -230.000000
-188.000000 -936.000000 -230.000000
-188.000000 -938.000000 -230.000000
-188.000000 -940.000000 -230.000000
-188.000000 -942.000000 -230.000000
-188.000000 -944.000000 -230.000000
-188.000000 -946.000000 -230.000000
-188.000000 -948.000000 -230.000000
-188.000000 -950.000000 -230.000000
-188.000000 -952.000000 -230.000000
-188.000000 -954.000000 -230.000000
-188.000000 -956.000000 -230.000000
-188.000000 -958.000000 -230.000000
-188.000000 -960.000000 -230.000000
-188.000000 -962.000000 -230.000000
-188.000000 -964.000000 -230.000000
-188.000000 -966.000000 -230.000000
-188.000000 -968.000000 -230.000000
-188.000000 -970.000000 -230.000000
-188.000000 -972.000000 -230.000000
-188.000000 -974.000000 -230.000000
-188.000000 -976.000000 -230.000000
-188.000000 -978.000000 -230.000000
-188.000000 -980.000000 -230.000000
-188.000000 -904.000000 -230.000000
-188.000000 -904.000000 -230.000000
-188.000000 -896.000000 -230.000000
-188.000000 -896.000000 -230.000000
-188.000000 -898.000000 -230.000000
-188.000000 -900.000000 -230.000000
-188.000000 -892.000000 -230.000000
-188.000000 -892.000000 -230.000000
-188.000000 -816.000000 -230.000000
-188.000000 -816.000000 -230.000000
-188.000000 -818.000000 -230.000000
-188.000000 -820.000000 -230.000000
-188.000000 -822.000000 -230.000000
-188.000000 -824.000000 -230.000000
-188.000000 -826.000000 -230.000000
-188.000000 -828.000000 -230.000000
-188.000000 -830.000000 -230.000000
-188.000000 -832.000000 -230.000000
-188.000000 -834.000000 -230.000000
-188.000000 -836.000000 -230.000000
-188.000000 -838.000000 -230.000000
-188.000000 -840.000000 -230.000000
-188.000000 -842.000000 -230.000000
-188.000000 -844.000000 -230.000000
-188.000000 -846.000000 -230.000000
-188.000000 -848.000000 -230.000000
-188.000000 -850.000000 -230.000000
-188.000000 -852.000000 -230.000000
-188.000000 -854.000000 -230.000000
-188.000000 -856.000000 -230.000000
-188.000000 -858.000000 -230.000000
-188.000000 -860.000000 -230.000000
-188.000000 -862.000000 -230.000000
-188.000000 -864.000000 -230.000000
-188.000000 -866.000000 -230.000000
-188.000000 -868.000000 -230.000000
-188.000000 -870.000000 -230.000000
-188.000000 -872.000000 -230.000000
-188.000000 -874.000000 -230.000000
-188.000000 -876.000000 -230.000000
-188.000000 -878.000000 -230.000000
-188.000000 -880.000000 -230.000000
-188.000000 -882.000000 -230.000000
-188.000000 -884.000000 -230.000000
-188.000000 -886.000000 -230.000000
-188.000000 -888.000000 -230.000000
-188.000000 -812.000000 -230.000000
-188.000000 -812.000000 -230.000000
-207.000000 -808.000000 -230.000000
-207.000000 -808.000000 -230.000000
-205.042900 -808.412021 -230.000000
-203.085801 -808.824042 -230.000000
-201.128701 -809.236063 -230.000000
-199.171602 -809.648084 -230.000000
-197.214502 -810.060105 -230.000000
-195.257403 -810.472126 -230.000000
-193.300303 -810.884147 -230.000000
-191.343203 -811.296168 -230.000000
-115.000000 -806.000000 -65.000000
-115.000000 -806.000000 -65.000000
-115.973927 -806.021172 -66.746716
-116.947854 -806.042345 -68.493433
-117.921780 -806.063517 -70.240149
-118.895707 -806.084689 -71.986866
-119.869634 -806.105862 -73.733582
-120.843561 -806.127034 -75.480299
-121.817487 -806.148206 -77.227015
-122.791414 -806.169379 -78.973732
-123.765341 -806.190551 -80.720448
-124.739268 -806.211723 -82.467165
-125.713194 -806.232896 -84.213881
-126.687121 -806.254068 -85.960598
-127.661048 -806.275240 -87.707314
-128.634975 -806.296412 -89.454031
-129.608901 -806.317585 -91.200747
-130.582828 -806.338757 -92.947463
-131.556755 -806.359929 -94.694180
-132.530682 -806.381102 -96.440896
-133.504608 -806.402274 -98.187613
-134.478535 -806.423446 -99.934329
-135.452462 -806.444619 -101.681046
-136.426389 -806.465791 -103.427762
-137.400315 -806.486963 -105.174479
-138.374242 -806.508136 -106.921195
-139.348169 -806.529308 -108.667912
-140.322096 -806.550480 -110.414628
-141.296022 -806.571653 -112.161345
-142.269949 -806.592825 -113.908061
-143.243876 -806.613997 -115.654777
-144.217803 -806.635170 -117.401494
-145.191729 -806.656342 -119.148210
-146.165656 -806.677514 -120.894927
-147.139583 -806.698687 -122.641643
-148.113510 -806.719859 -124.388360
-149.087436 -806.741031 -126.135076
-150.061363 -806.762204 -127.881793
-151.035290 -806.783376 -129.628509
-152.009217 -806.804548 -131.375226
-152.983143 -806.825721 -133.121942
-153.957070 -806.846893 -134.868659
-154.930997 -806.868065 -136.615375
-155.904924 -806.889237 -138.362092
-156.878851 -806.910410 -140.108808
-157.852777 -806.931582 -141.855524
-158.826704 -806.952754 -143.602241
-159.800631 -806.973927 -145.348957
-160.774558 -806.995099 -147.095674
-161.748484 -807.016271 -148.842390
-162.722411 -807.037444 -150.589107
-163.696338 -807.058616 -152.335823
-164.670265 -807.079788 -154.082540
-165.644191 -807.100961 -155.829256
-166.618118 -807.122133 -157.575973
-167.592045 -807.143305 -159.322689
-168.565972 -807.164478 -161.069406
-169.539898 -807.185650 -162.816122
-170.513825 -807.206822 -164.562838
-171.487752 -807.227995 -166.309555
-172.461679 -807.249167 -168.056271
-173.435605 -807.270339 -169.802988
-174.409532 -807.291512 -171.549704
-175.383459 -807.312684 -173.296421
-176.357386 -807.333856 -175.043137
-177.331312 -807.355029 -176.789854
-178.305239 -807.376201 -178.536570
-179.279166 -807.397373 -180.283287
-180.253093 -807.418545 -182.030003
-181.227019 -807.439718 -183.776720
-182.200946 -807.460890 -185.523436
-183.174873 -807.482062 -187.270153
-184.148800 -807.503235 -189.016869
-185.122726 -807.524407 -190.763585
-186.096653 -807.545579 -192.510302
-187.070580 -807.566752 -194.257018
-188.044507 -807.587924 -196.003735
-189.018433 -807.609096 -197.750451
-189.992360 -807.630269 -199.497168
-190.966287 -807.651441 -201.243884
-191.940214 -807.672613 -202.990601
-192.914140 -807.693786 -204.737317
-193.888067 -807.714958 -206.484034
-194.861994 -807.736130 -208.230750
-195.835921 -807.757303 -209.977467
-196.809847 -807.778475 -211.724183
-197.783774 -807.799647 -213.470899
-198.757701 -807.820820 -215.217616
-199.731628 -807.841992 -216.964332
-200.705555 -807.863164 -218.711049
-201.679481 -807.884337 -220.457765
-202.653408 -807.905509 -222.204482
-203.627335 -807.926681 -223.951198
-204.601262 -807.947854 -225.697915
-205.575188 -807.969026 -227.444631
-228.000000 -755.000000 -65.000000
-228.000000 -755.000000 -65.000000
-226.177064 -755.822741 -65.000000
-224.354127 -756.645482 -65.000000
-222.531191 -757.468224 -65.000000
-220.708255 -758.290965 -65.000000
-218.885318 -759.113706 -65.000000
-217.062382 -759.936447 -65.000000
-215.239446 -760.759188 -65.000000
-213.416509 -761.581929 -65.000000
-211.593573 -762.404671 -65.000000
-209.770636 -763.227412 -65.000000
-207.947700 -764.050153 -65.000000
-206.124764 -764.872894 -65.000000
-204.301827 -765.695635 -65.000000
-202.478891 -766.518377 -65.000000
-200.655955 -767.341118 -65.000000
-198.833018 -768.163859 -65.000000
-197.010082 -768.986600 -65.000000
-195.187146 -769.809341 -65.000000
-193.364209 -770.632083 -65.000000
-191.541273 -771.454824 -65.000000
-189.718337 -772.277565 -65.000000
-187.895400 -773.100306 -65.000000
-186.072464 -773.923047 -65.000000
-184.249528 -774.745788 -65.000000
-182.426591 -775.568530 -65.000000
-180.603655 -776.391271 -65.000000
-178.780719 -777.214012 -65.000000
-176.957782 -778.036753 -65.000000
-175.134846 -778.859494 -65.000000
-173.311909 -779.682236 -65.000000
-171.488973 -780.504977 -65.000000
-169.666037 -781.327718 -65.000000
-167.843100 -782.150459 -65.000000
-166.020164 -782.973200 -65.000000
-164.197228 -783.795941 -65.000000
-162.374291 -784.618683 -65.000000
-160.551355 -785.441424 -65.000000
-158.728419 -786.264165 -65.000000
-156.905482 -787.086906 -65.000000
-155.082546 -787.909647 -65.000000
-153.259610 -788.732389 -65.000000
-151.436673 -789.555130 -65.000000
-149.613737 -790.377871 -65.000000
-147.790801 -791.200612 -65.000000
-145.967864 -792.023353 -65.000000
-144.144928 -792.846095 -65.000000
-142.321991 -793.668836 -65.000000
-140.499055 -794.491577 -65.000000
-138.676119 -795.314318 -65.000000
-136.853182 -796.137059 -65.000000
-135.030246 -796.959800 -65.000000
-133.207310 -797.782542 -65.000000
-131.384373 -798.605283 -65.000000
-129.561437 -799.428024 -65.000000
-127.738501 -800.250765 -65.000000
-125.915564 -801.073506 -65.000000
-124.092628 -801.896248 -65.000000
-122.269692 -802.718989 -65.000000
-120.446755 -803.541730 -65.000000
-118.623819 -804.364471 -65.000000
-323.000000 -808.000000 -65.000000
-323.000000 -808.000000 -65.000000
-321.253423 -807.025594 -65.000000
-319.506845 -806.051187 -65.000000
-317.760268 -805.076781 -65.000000
-316.013691 -804.102375 -65.000000
-314.267113 -803.127969 -65.000000
-312.520536 -802.153562 -65.000000
-310.773959 -801.179156 -65.000000
-309.027381 -800.204750 -65.000000
-307.280804 -799.230343 -65.000000
-305.534227 -798.255937 -65.000000
-303.787649 -797.281531 -65.000000
-302.041072 -796.307124 -65.000000
-300.294495 -795.332718 -65.000000
-298.547917 -794.358312 -65.000000
-296.801340 -793.383906 -65.000000
-295.054763 -792.409499 -65.000000
-293.308185 -791.435093 -65.000000
-291.561608 -790.460687 -65.000000
-289.815031 -789.486280 -65.000000
-288.068453 -788.511874 -65.000000
-286.321876 -787.537468 -65.000000
-284.575299 -786.563061 -65.000000
-282.828721 -785.588655 -65.000000
-281.082144 -784.614249 -65.000000
-279.335567 -783.639843 -65.000000
-277.588989 -782.665436 -65.000000
-275.842412 -781.691030 -65.000000
-274.095835 -780.716624 -65.000000
-272.349257 -779.742217 -65.000000
-270.602680 -778.767811 -65.000000
-268.856103 -777.793405 -65.000000
-267.109525 -776.818998 -65.000000
-265.362948 -775.844592 -65.000000
-263.616371 -774.870186 -65.000000
-261.869794 -773.895780 -65.000000
-260.123216 -772.921373 -65.000000
-258.376639 -771.946967 -65.000000
-256.630062 -770.972561 -65.000000
-254.883484 -769.998154 -65.000000
-253.136907 -769.023748 -65.000000
-251.390330 -768.049342 -65.000000
-249.643752 -767.074935 -65.000000
-247.897175 -766.100529 -65.000000
-246.150598 -765.126123 -65.000000
-244.404020 -764.151717 -65.000000
-242.657443 -763.177310 -65.000000
-240.910866 -762.202904 -65.000000
-239.164288 -761.228498 -65.000000
-237.417711 -760.254091 -65.000000
-235.671134 -759.279685 -65.000000
-233.924556 -758.305279 -65.000000
-232.177979 -757.330872 -65.000000
-230.431402 -756.356466 -65.000000
-354.000000 -992.000000 -210.000000
-354.000000 -992.000000 -210.000000
-353.737632 -990.442718 -208.772794
-353.475264 -988.885435 -207.545588
-353.212895 -987.328153 -206.318382
-352.950527 -985.770871 -205.091175
-352.688159 -984.213589 -203.863969
-352.425791 -982.656306 -202.636763
-352.163423 -981.099024 -201.409557
-351.901054 -979.541742 -200.182351
-351.638686 -977.984460 -198.955145
-351.376318 -976.427177 -197.727939
-351.113950 -974.869895 -196.500733
-350.851582 -973.312613 -195.273526
-350.589213 -971.755331 -194.046320
-350.326845 -970.198048 -192.819114
-350.064477 -968.640766 -191.591908
-349.802109 -967.083484 -190.364702
-349.539740 -965.526202 -189.137496
-349.277372 -963.968919 -187.910290
-349.015004 -962.411637 -186.683084
-348.752636 -960.854355 -185.455877
-348.490268 -959.297073 -184.228671
-348.227899 -957.739790 -183.001465
-347.965531 -956.182508 -181.774259
-347.703163 -954.625226 -180.547053
-347.440795 -953.067943 -179.319847
-347.178427 -951.510661 -178.092641
-346.916058 -949.953379 -176.865435
-346.653690 -948.396097 -175.638228
-346.391322 -946.838814 -174.411022
-346.128954 -945.281532 -173.183816
-345.866586 -943.724250 -171.956610
-345.604217 -942.166968 -170.729404
-345.341849 -940.609685 -169.502198
-345.079481 -939.052403 -168.274992
-344.817113 -937.495121 -167.047785
-344.554745 -935.937839 -165.820579
-344.292376 -934.380556 -164.593373
-344.030008 -932.823274 -163.366167
-343.767640 -931.265992 -162.138961
-343.505272 -929.708710 -160.911755
-343.242904 -928.151427 -159.684549
-342.980535 -926.594145 -158.457343
-342.718167 -925.036863 -157.230136
-342.455799 -923.479581 -156.002930
-342.193431 -921.922298 -154.775724
-341.931062 -920.365016 -153.548518
-341.668694 -918.807734 -152.321312
-341.406326 -917.250451 -151.094106
-341.143958 -915.693169 -149.866900
-340.881590 -914.135887 -148.639694
-340.619221 -912.578605 -147.412487
-340.356853 -911.021322 -146.185281
-340.094485 -909.464040 -144.958075
-339.832117 -907.906758 -143.730869
-339.569749 -906.349476 -142.503663
-339.307380 -904.792193 -141.276457
-339.045012 -903.234911 -140.049251
-338.782644 -901.677629 -138.822044
-338.520276 -900.120347 -137.594838
-338.257908 -898.563064 -136.367632
-337.995539 -897.005782 -135.140426
-337.733171 -895.448500 -133.913220
-337.470803 -893.891218 -132.686014
-337.208435 -892.333935 -131.458808
-336.946067 -890.776653 -130.231602
-336.683698 -889.219371 -129.004395
-336.421330 -887.662089 -127.777189
-336.158962 -886.104806 -126.549983
-335.896594 -884.547524 -125.322777
-335.634226 -882.990242 -124.095571
-335.371857 -881.432959 -122.868365
-335.109489 -879.875677 -121.641159
-334.847121 -878.318395 -120.413953
-334.584753 -876.761113 -119.186746
-334.322384 -875.203830 -117.959540
-334.060016 -873.646548 -116.732334
-333.797648 -872.089266 -115.505128
-333.535280 -870.531984 -114.277922
-333.272912 -868.974701 -113.050716
-333.010543 -867.417419 -111.823510
-332.748175 -865.860137 -110.596304
-332.485807 -864.302855 -109.369097
-332.223439 -862.745572 -108.141891
-331.961071 -861.188290 -106.914685
-331.698702 -859.631008 -105.687479
-331.436334 -858.073726 -104.460273
-331.173966 -856.516443 -103.233067
-330.911598 -854.959161 -102.005861
-330.649230 -853.401879 -100.778654
-330.386861 -851.844597 -99.551448
-330.124493 -850.287314 -98.324242
-329.862125 -848.730032 -97.097036
-329.599757 -847.172750 -95.869830
-329.337389 -845.615467 -94.642624
-329.075020 -844.058185 -93.415418
-328.812652 -842.500903 -92.188212
-328.550284 -840.943621 -90.961005
-328.287916 -839.386338 -89.733799
-328.025548 -837.829056 -88.506593
-327.763179 -836.271774 -87.279387
-327.500811 -834.714492 -86.052181
-327.238443 -833.157209 -84.824975
-326.976075 -831.599927 -83.597769
-326.713706 -830.042645 -82.370563
-326.451338 -828.485363 -81.143356
-326.188970 -826.928080 -79.916150
-325.926602 -825.370798 -78.688944
-325.664234 -823.813516 -77.461738
-325.401865 -822.256234 -76.234532
-325.139497 -820.698951 -75.007326
-324.877129 -819.141669 -73.780120
-324.614761 -817.584387 -72.552914
-324.352393 -816.027105 -71.325707
-324.090024 -814.469822 -70.098501
-323.827656 -812.912540 -68.871295
-323.565288 -811.355258 -67.644089
-323.302920 -809.797975 -66.416883
-354.000000 -1176.000000 -228.000000
-354.000000 -1176.000000 -228.000000
-354.000000 -1174.009502 -227.805277
-354.000000 -1172.019004 -227.610555
-354.000000 -1170.028505 -227.415832
-354.000000 -1168.038007 -227.221109
-354.000000 -1166.047509 -227.026387
-354.000000 -1164.057011 -226.831664
-354.000000 -1162.066513 -226.636941
-354.000000 -1160.076014 -226.442219
-354.000000 -1158.085516 -226.247496
-354.000000 -1156.095018 -226.052773
-354.000000 -1154.104520 -225.858051
-354.000000 -1152.114022 -225.663328
-354.000000 -1150.123523 -225.468606
-354.000000 -1148.133025 -225.273883
-354.000000 -1146.142527 -225.079160
-354.000000 -1144.152029 -224.884438
-354.000000 -1142.161531 -224.689715
-354.000000 -1140.171032 -224.494992
-354.000000 -1138.180534 -224.300270
-354.000000 -1136.190036 -224.105547
-354.000000 -1134.199538 -223.910824
-354.000000 -1132.209040 -223.716102
-354.000000 -1130.218541 -223.521379
-354.000000 -1128.228043 -223.326656
-354.000000 -1126.237545 -223.131934
-354.000000 -1124.247047 -222.937211
-354.000000 -1122.256549 -222.742488
-354.000000 -1120.266050 -222.547766
-354.000000 -1118.275552 -222.353043
-354.000000 -1116.285054 -222.158320
-354.000000 -1114.294556 -221.963598
-354.000000 -1112.304058 -221.768875
-354.000000 -1110.313559 -221.574153
-354.000000 -1108.323061 -221.379430
-354.000000 -1106.332563 -221.184707
-354.000000 -1104.342065 -220.989985
-354.000000 -1102.351567 -220.795262
-354.000000 -1100.361068 -220.600539
-354.000000 -1098.370570 -220.405817
-354.000000 -1096.380072 -220.211094
-354.000000 -1094.389574 -220.016371
-354.000000 -1092.399076 -219.821649
-354.000000 -1090.408577 -219.626926
-354.000000 -1088.418079 -219.432203
-354.000000 -1086.427581 -219.237481
-354.000000 -1084.437083 -219.042758
-354.000000 -1082.446585 -218.848035
-354.000000 -1080.456086 -218.653313
-354.000000 -1078.465588 -218.458590
-354.000000 -1076.475090 -218.263867
-354.000000 -1074.484592 -218.069145
-354.000000 -1072.494094 -217.874422
-354.000000 -1070.503595 -217.679700
-354.000000 -1068.513097 -217.484977
-354.000000 -1066.522599 -217.290254
-354.000000 -1064.532101 -217.095532
-354.000000 -1062.541603 -216.900809
-354.000000 -1060.551104 -216.706086
-354.000000 -1058.560606 -216.511364
-354.000000 -1056.570108 -216.316641
-354.000000 -1054.579610 -216.121918
-354.000000 -1052.589112 -215.927196
-354.000000 -1050.598613 -215.732473
-354.000000 -1048.608115 -215.537750
-354.000000 -1046.617617 -215.343028
-354.000000 -1044.627119 -215.148305
-354.000000 -1042.636621 -214.953582
-354.000000 -1040.646122 -214.758860
-354.000000 -1038.655624 -214.564137
-354.000000 -1036.665126 -214.369414
-354.000000 -1034.674628 -214.174692
-354.000000 -1032.684130 -213.979969
-354.000000 -1030.693631 -213.785247
-354.000000 -1028.703133 -213.590524
-354.000000 -1026.712635 -213.395801
-354.000000 -1024.722137 -213.201079
-354.000000 -1022.731638 -213.006356
-354.000000 -1020.741140 -212.811633
-354.000000 -1018.750642 -212.616911
-354.000000 -1016.760144 -212.422188
-354.000000 -1014.769646 -212.227465
-354.000000 -1012.779147 -212.032743
-354.000000 -1010.788649 -211.838020
-354.000000 -1008.798151 -211.643297
-354.000000 -1006.807653 -211.448575
-354.000000 -1004.817155 -211.253852
-354.000000 -1002.826656 -211.059129
-354.000000 -1000.836158 -210.864407
-354.000000 -998.845660 -210.669684
-354.000000 -996.855162 -210.474961
-354.000000 -994.864664 -210.280239
-259.000000 -1176.000000 -230.000000
-259.000000 -1176.000000 -230.000000
-260.999557 -1176.000000 -229.957904
-262.999114 -1176.000000 -229.915808
-264.998671 -1176.000000 -229.873712
-266.998228 -1176.000000 -229.831616
-268.997785 -1176.000000 -229.789520
-270.997342 -1176.000000 -229.747424
-272.996899 -1176.000000 -229.705328
-274.996455 -1176.000000 -229.663233
-276.996012 -1176.000000 -229.621137
-278.995569 -1176.000000 -229.579041
-280.995126 -1176.000000 -229.536945
-282.994683 -1176.000000 -229.494849
-284.994240 -1176.000000 -229.452753
-286.993797 -1176.000000 -229.410657
-288.993354 -1176.000000 -229.368561
-290.992911 -1176.000000 -229.326465
-292.992468 -1176.000000 -229.284369
-294.992025 -1176.000000 -229.242273
-296.991582 -1176.000000 -229.200177
-298.991139 -1176.000000 -229.158081
-300.990696 -1176.000000 -229.115985
-302.990253 -1176.000000 -229.073889
-304.989809 -1176.000000 -229.031793
-306.989366 -1176.000000 -228.989698
-308.988923 -1176.000000 -228.947602
-310.988480 -1176.000000 -228.905506
-312.988037 -1176.000000 -228.863410
-314.987594 -1176.000000 -228.821314
-316.987151 -1176.000000 -228.779218
-318.986708 -1176.000000 -228.737122
-320.986265 -1176.000000 -228.695026
-322.985822 -1176.000000 -228.652930
-324.985379 -1176.000000 -228.610834
-326.984936 -1176.000000 -228.568738
-328.984493 -1176.000000 -228.526642
-330.984050 -1176.000000 -228.484546
-332.983607 -1176.000000 -228.442450
-334.983163 -1176.000000 -228.400354
